# 216H2O,WATJP01,SPC216,SPC-MODEL,300K,BOX(M)=1.86206NM,WFVG,MAR. 1984
# OW1, HW1, HW2
1.86206 1.86206 1.86206
   .230    .628    .113
   .137    .626    .150
   .231    .589    .021
   .225    .275   -.866
   .260    .258   -.774
   .137    .230   -.878
   .019    .368    .647
  -.063    .411    .686
  -.009    .295    .584
   .569   -.587   -.697
   .476   -.594   -.734
   .580   -.498   -.653
  -.307   -.351    .703
  -.364   -.367    .784
  -.366   -.341    .623
  -.119    .618    .856
  -.086    .712    .856
  -.068    .564    .922
  -.727    .703    .717
  -.670    .781    .692
  -.787    .729    .793
  -.107    .607    .231
  -.119    .594    .132
  -.137    .526    .280
   .768   -.718   -.839
   .690   -.701   -.779
   .802   -.631   -.875
   .850    .798   -.039
   .846    .874    .026
   .872    .834   -.130
   .685   -.850    .665
   .754   -.866    .735
   .612   -.793    .703
   .686   -.701   -.059
   .746   -.622   -.045
   .600   -.670   -.100
   .335   -.427   -.801
   .257   -.458   -.854
   .393   -.369   -.858
  -.402   -.357   -.523
  -.378   -.263   -.497
  -.418   -.411   -.441
   .438    .392   -.363
   .520    .336   -.354
   .357    .334   -.359
  -.259    .447    .737
  -.333    .493    .687
  -.208    .515    .790
   .231   -.149    .483
   .265   -.072    .537
   .275   -.149    .393
  -.735   -.521   -.172
  -.688   -.521   -.084
  -.783   -.608   -.183
   .230   -.428    .538
   .204   -.332    .538
   .159   -.482    .583
   .240   -.771    .886
   .254   -.855    .938
   .185   -.707    .941
   .620   -.076   -.423
   .528   -.093   -.388
   .648    .016   -.397
   .606   -.898    .123
   .613   -.814    .069
   .652   -.885    .211
  -.268    .114   -.382
  -.286    .181   -.454
  -.271    .160   -.293
   .122    .643    .563
   .077    .555    .580
   .121    .697    .647
  -.020   -.095    .359
   .034   -.124    .439
   .010   -.005    .330
   .027   -.266    .117
   .008   -.362    .138
  -.006   -.208    .192
  -.173    .922    .612
  -.078    .893    .620
  -.181    .987    .537
  -.221   -.754    .432
  -.135   -.752    .380
  -.207   -.707    .520
   .113    .737   -.265
   .201    .724   -.220
   .100    .834   -.287
   .613   -.497    .726
   .564   -.584    .735
   .590   -.454    .639
  -.569   -.634   -.439
  -.532   -.707   -.497
  -.517   -.629   -.354
   .809    .004    .502
   .849    .095    .493
   .709    .012    .508
   .197   -.886   -.598
   .286   -.931   -.612
   .124   -.951   -.617
  -.337   -.863    .190
  -.400   -.939    .203
  -.289   -.845    .276
  -.675   -.070   -.246
  -.651   -.010   -.322
  -.668   -.165   -.276
   .317    .251   -.061
   .388    .322   -.055
   .229    .290   -.033
  -.396   -.445   -.909
  -.455   -.439   -.829
  -.411   -.533   -.955
  -.195   -.148    .572
  -.236   -.171    .484
  -.213   -.222    .637
   .598    .729    .270
   .622    .798    .202
   .520    .762    .324
  -.581    .345   -.918
  -.667    .295   -.931
  -.519    .291   -.862
  -.286   -.200    .307
  -.197   -.154    .310
  -.307   -.224    .212
   .807    .605   -.397
   .760    .602   -.308
   .756    .550   -.463
  -.468    .469   -.188
  -.488    .512   -.100
  -.390    .407   -.179
  -.889    .890   -.290
  -.843    .806   -.319
  -.945    .924   -.365
  -.871    .410   -.620
  -.948    .444   -.566
  -.905    .359   -.699
  -.821    .701    .429
  -.795    .697    .525
  -.906    .650    .415
   .076    .811    .789
   .175    .799    .798
   .052    .906    .810
   .130   -.041   -.291
   .120   -.056   -.192
   .044   -.005   -.327
   .865    .348    .195
   .924    .411    .146
   .884    .254    .166
  -.143    .585   -.031
  -.169    .674   -.067
  -.145    .517   -.104
  -.500   -.718    .545
  -.417   -.747    .497
  -.549   -.651    .489
   .550    .196    .885
   .545    .191    .985
   .552    .292    .856
  -.854   -.406    .477
  -.900   -.334    .425
  -.858   -.386    .575
   .351   -.061    .853
   .401   -.147    .859
   .416    .016    .850
  -.067   -.796    .873
  -.129   -.811    .797
  -.119   -.785    .958
  -.635   -.312   -.356
  -.629   -.389   -.292
  -.687   -.338   -.436
   .321   -.919    .242
   .403   -.880    .200
   .294  -1.001    .193
  -.404    .735    .728
  -.409    .670    .803
  -.324    .794    .741
   .461   -.596   -.135
   .411   -.595   -.221
   .398   -.614   -.059
  -.751   -.086    .237
  -.811   -.148    .287
  -.720   -.130    .152
   .202    .285   -.364
   .122    .345   -.377
   .192    .236   -.278
  -.230   -.485    .081
  -.262   -.391    .071
  -.306   -.548    .069
   .464   -.119    .323
   .497   -.080    .409
   .540   -.126    .258
  -.462    .107    .426
  -.486    .070    .336
  -.363    .123    .430
   .249   -.077   -.621
   .306   -.142   -.571
   .233   -.110   -.714
  -.922   -.164    .904
  -.842   -.221    .925
  -.971   -.204    .827
   .382    .700    .480
   .427    .610    .477
   .288    .689    .513
  -.315    .222   -.133
  -.320    .259   -.041
  -.387    .153   -.145
   .614    .122    .117
   .712    .100    .124
   .583    .105    .024
   .781    .264   -.113
   .848    .203   -.070
   .708    .283   -.048
   .888   -.348   -.667
   .865   -.373   -.761
   .949   -.417   -.628
  -.511    .590   -.429
  -.483    .547   -.344
  -.486    .686   -.428
   .803   -.460    .924
   .893   -.446    .882
   .732   -.458    .853
   .922    .503    .899
   .897    .494    .803
   .970    .421    .930
   .539    .064    .512
   .458    .065    .570
   .542    .147    .457
  -.428   -.674    .041
  -.396   -.750    .098
  -.520   -.647    .071
   .297    .035    .171
   .346    .119    .150
   .359   -.030    .216
  -.927    .236    .480
  -.975    .277    .402
  -.828    .234    .461
  -.786    .683   -.398
  -.866    .622   -.395
  -.705    .630   -.422
  -.635   -.292    .793
  -.614   -.218    .728
  -.567   -.292    .866
   .459   -.710    .741
   .388   -.737    .806
   .433   -.738    .648
  -.591   -.065    .591
  -.547   -.001    .527
  -.641   -.013    .661
  -.830    .549    .016
  -.871    .631   -.023
  -.766    .575    .089
   .078    .556   -.476
   .170    .555   -.517
   .072    .630   -.409
   .561    .222   -.715
   .599    .138   -.678
   .473    .241   -.671
   .866    .454    .642
   .834    .526    .580
   .890    .373    .589
  -.845    .039    .753
  -.917    .044    .684
  -.869   -.030    .822
  -.433   -.689    .867
  -.488   -.773    .860
  -.407   -.660    .775
  -.396    .590   -.870
  -.426    .495   -.863
  -.323    .606   -.804
  -.005    .833    .377
   .037    .769    .441
  -.043    .782    .299
   .488   -.477    .174
   .401   -.492    .221
   .471   -.451    .079
  -.198   -.582    .657
  -.099   -.574    .671
  -.243   -.498    .688
  -.472    .575    .078
  -.526    .554    .159
  -.381    .534    .087
   .527    .256    .328
   .554    .197    .253
   .527    .351    .297
  -.108   -.639   -.274
  -.017   -.678   -.287
  -.100   -.543   -.250
  -.798   -.515   -.522
  -.878   -.538   -.467
  -.715   -.541   -.473
  -.270   -.233   -.237
  -.243   -.199   -.327
  -.191   -.271   -.191
  -.751   -.667   -.762
  -.791   -.623   -.681
  -.792   -.630   -.845
  -.224   -.763   -.783
  -.219   -.682   -.724
  -.310   -.761   -.834
   .915    .089   -.460
   .940    .069   -.555
   .987    .145   -.418
  -.882   -.746   -.143
  -.981   -.740   -.133
  -.859   -.826   -.199
   .705   -.812    .368
   .691   -.805    .467
   .789   -.863    .350
   .410    .813   -.611
   .496    .825   -.561
   .368    .726   -.584
  -.588    .386   -.600
  -.567    .460   -.536
  -.677    .403   -.643
   .064   -.298   -.531
   .018   -.216   -.565
   .162   -.279   -.522
   .367   -.762    .501
   .360   -.679    .445
   .371   -.842    .441
   .566    .537    .865
   .578    .603    .791
   .612    .571    .948
  -.610   -.514    .388
  -.560   -.437    .428
  -.705   -.512    .420
  -.590   -.417   -.720
  -.543   -.404   -.633
  -.656   -.491   -.711
  -.280    .639    .472
  -.311    .700    .545
  -.230    .691    .403
   .354   -.352   -.533
   .333   -.396   -.620
   .451   -.326   -.530
   .402    .751   -.264
   .470    .806   -.311
   .442    .663   -.237
  -.275    .779   -.192
  -.367    .817   -.197
  -.215    .826   -.257
  -.849    .105   -.092
  -.843    .190   -.144
  -.817    .029   -.149
   .504    .050   -.122
   .462   -.007   -.192
   .438    .119   -.090
   .573    .870   -.833
   .617    .959   -.842
   .510    .870   -.756
  -.502    .862   -.817
  -.577    .862   -.883
  -.465    .770   -.808
  -.653    .525    .275
  -.640    .441    .329
  -.682    .599    .335
   .307    .213   -.631
   .284    .250   -.541
   .277    .118   -.637
   .037   -.552   -.580
   .090   -.601   -.512
   .059   -.454   -.575
   .732    .634   -.798
   .791    .608   -.874
   .704    .730   -.809
  -.134   -.927   -.008
  -.180   -.934   -.097
  -.196   -.883    .058
   .307    .063    .618
   .296    .157    .651
   .302   -.000    .695
  -.240    .367    .374
  -.238    .291    .438
  -.288    .444    .414
  -.839    .766   -.896
  -.824    .787   -.800
  -.869    .671   -.905
  -.882   -.289   -.162
  -.902   -.245   -.250
  -.843   -.380   -.178
  -.003   -.344   -.257
   .011   -.317   -.352
   .080   -.322   -.204
   .350    .898   -.058
   .426    .942   -.010
   .385    .851   -.140
  -.322    .274    .125
  -.383    .199    .148
  -.300    .326    .208
  -.559    .838    .042
  -.525    .745    .057
  -.541    .865   -.053
  -.794   -.529    .849
  -.787   -.613    .794
  -.732   -.460    .813
   .319    .810   -.913
   .412    .846   -.908
   .313    .725   -.861
   .339    .509   -.856
   .287    .426   -.873
   .416    .514   -.920
   .511    .415   -.054
   .493    .460    .034
   .553    .480   -.117
  -.724    .380   -.184
  -.769    .443   -.120
  -.631    .411   -.201
  -.702    .207   -.385
  -.702    .271   -.308
  -.674    .255   -.468
   .008   -.536    .200
  -.085   -.515    .169
   .018   -.635    .213
   .088   -.061    .927
   .046   -.147    .900
   .182   -.058    .893
   .504   -.294    .910
   .570   -.220    .919
   .548   -.373    .868
  -.860    .796   -.624
  -.819    .764   -.538
  -.956    .769   -.627
   .040    .544   -.748
   .125    .511   -.789
   .053    .559   -.650
   .189    .520   -.140
   .248    .480   -.210
   .131    .591   -.181
  -.493   -.912   -.202
  -.454   -.823   -.182
  -.483   -.932   -.299
   .815    .572    .325
   .822    .483    .279
   .721    .606    .317
  -.205    .604   -.656
  -.243    .535   -.594
  -.123    .568   -.700
   .252   -.298   -.118
   .222   -.241   -.042
   .245   -.395   -.092
   .671    .464   -.593
   .637    .375   -.623
   .697    .518   -.673
   .930   -.184   -.397
   .906   -.202   -.492
   .960   -.090   -.387
   .473    .500    .191
   .534    .580    .195
   .378    .531    .198
   .159   -.725   -.396
   .181   -.786   -.320
   .169   -.774   -.482
  -.515   -.803   -.628
  -.491   -.866   -.702
  -.605   -.763   -.646
  -.560    .855    .309
  -.646    .824    .351
  -.564    .841    .210
  -.103   -.115   -.708
  -.042   -.085   -.781
  -.141   -.204   -.730
  -.610   -.131   -.734
  -.526   -.126   -.788
  -.633   -.227   -.716
   .083   -.604   -.840
   .078   -.605   -.740
   .000   -.645   -.878
   .688   -.200   -.146
   .632   -.119   -.137
   .740   -.196   -.232
   .903    .086    .133
   .954    .087    .047
   .959    .044    .204
  -.136    .135    .523
  -.063    .118    .456
  -.167    .048    .561
  -.474   -.289    .477
  -.407   -.277    .403
  -.514   -.200    .500
   .130   -.068   -.011
   .089   -.142    .042
   .194   -.017    .047
  -.582    .927    .672
  -.522    .846    .674
  -.542    .996    .612
   .830   -.589   -.440
   .825   -.556   -.345
   .744   -.570   -.486
   .672   -.246    .154
   .681   -.236    .055
   .632   -.335    .175
  -.212   -.142   -.468
  -.159   -.132   -.552
  -.239   -.052   -.434
  -.021    .175   -.899
   .018    .090   -.935
  -.119    .177   -.918
   .263    .326    .720
   .184    .377    .686
   .254    .311    .818
  -.668   -.250    .031
  -.662   -.343    .068
  -.727   -.250   -.049
   .822   -.860   -.490
   .862   -.861   -.582
   .832   -.768   -.450
   .916    .910    .291
   .979    .948    .223
   .956    .827    .330
  -.358   -.255    .044
  -.450   -.218    .051
  -.320   -.235   -.046
   .372   -.574   -.372
   .359   -.481   -.406
   .288   -.626   -.385
  -.248   -.570   -.573
  -.188   -.567   -.493
  -.323   -.506   -.560
  -.823   -.764    .696
  -.893   -.811    .750
  -.764   -.832    .653
  -.848    .236   -.891
  -.856    .200   -.984
  -.850    .160   -.826
   .590   -.375    .491
   .632   -.433    .421
   .546   -.296    .447
  -.153    .385   -.481
  -.080    .454   -.477
  -.125    .310   -.540
   .255   -.514    .290
   .159   -.513    .263
   .267   -.461    .374
   .105   -.849   -.136
   .028   -.882   -.082
   .190   -.879   -.094
   .672    .203   -.373
   .762    .187   -.413
   .680    .208   -.274
   .075    .345    .033
  -.017    .317    .004
   .106    .422   -.023
  -.422    .856   -.464
  -.479    .908   -.527
  -.326    .868   -.488
   .072    .166    .318
   .055    .249    .264
   .162    .129    .296
  -.679   -.527    .119
  -.778   -.538    .121
  -.645   -.512    .212
   .613    .842   -.431
   .669    .923   -.448
   .672    .762   -.428
  -.369   -.095   -.903
  -.336   -.031   -.972
  -.303   -.101   -.828
   .716    .565   -.154
   .735    .630   -.080
   .776    .485   -.145
  -.412   -.642   -.229
  -.421   -.652   -.130
  -.316   -.649   -.255
   .390   -.121   -.302
   .299   -.080   -.304
   .383   -.215   -.270
  -.188    .883   -.608
  -.215    .794   -.645
  -.187    .951   -.681
  -.637    .325    .449
  -.572    .251    .438
  -.617    .375    .533
   .594    .745    .652
   .644    .830    .633
   .506    .747    .604
  -.085    .342   -.220
  -.102    .373   -.314
  -.169    .305   -.182
  -.132   -.928   -.345
  -.094   -.837   -.330
  -.140   -.945   -.444
   .859   -.488    .016
   .813   -.473    .104
   .903   -.403   -.014
   .661   -.072   -.909
   .615    .016   -.922
   .760   -.060   -.916
  -.454   -.011   -.142
  -.550   -.022   -.169
  -.398   -.078   -.190
   .859   -.906    .861
   .913   -.975    .909
   .827   -.837    .927
  -.779   -.878    .087
  -.802   -.825    .005
  -.698   -.934    .068
  -.001   -.293    .851
  -.072   -.305    .781
   .000   -.372    .911
   .221   -.548   -.018
   .156   -.621   -.039
   .225   -.534    .080
   .079   -.622    .653
   .078   -.669    .741
   .161   -.650    .602
   .672   -.471   -.238
   .594   -.521   -.200
   .669   -.376   -.207
  -.038    .192   -.635
  -.042    .102   -.591
  -.035    .181   -.734
   .428    .424    .520
   .458    .352    .458
   .389    .384    .603
  -.157   -.375   -.758
  -.250   -.400   -.785
  -.131   -.425   -.676
   .317    .547   -.582
   .355    .488   -.510
   .357    .521   -.670
   .812   -.276    .687
   .844   -.266    .593
   .733   -.338    .689
  -.438    .214   -.750
  -.386    .149   -.695
  -.487    .277   -.689
  -.861    .034   -.708
  -.924   -.038   -.739
  -.768   -.002   -.708
   .770   -.532    .301
   .724   -.619    .318
   .861   -.535    .342
   .618   -.295   -.578
   .613   -.213   -.521
   .707   -.298   -.623
  -.510    .052    .168
  -.475    .011    .084
  -.600    .014    .188
  -.562    .453    .691
  -.621    .533    .695
  -.547    .418    .784
  -.269    .221    .882
  -.353    .220    .936
  -.267    .304    .826
   .039   -.785    .300
   .138   -.796    .291
  -.001   -.871    .332
   .875   -.216    .337
   .798   -.251    .283
   .843   -.145    .399